ply
    format ascii 1.0
    element vertex 39182
    property float x
    property float y
    property float z
    end_header
-1.166667 2.958333 -6.400000
-0.639535 1.651163 -3.572093
-0.627907 1.651163 -3.572093
-0.616279 1.651163 -3.572093
-1.733333 4.733333 -10.240001
-1.821429 5.071429 -10.971429
-1.785714 5.071429 -10.971429
-1.531250 4.437500 -9.600000
-1.333333 3.944444 -8.533334
-1.305556 3.944444 -8.533334
-1.277778 3.944444 -8.533334
-0.478723 1.510638 -3.268085
-0.976190 3.380952 -7.314286
-0.952381 3.380952 -7.314286
-0.780000 2.840000 -6.144000
-0.711538 2.730769 -5.907692
-2.750000 35.500000 -76.800003
-2.500000 35.500000 -76.800003
-2.250000 35.500000 -76.800003
-2.000000 35.500000 -76.800003
-1.166667 23.666666 -51.200001
-0.500000 17.750000 -38.400002
-0.300000 14.200000 -30.720001
-0.200000 14.200000 -30.720001
0.000000 1.651163 -3.572093
0.032609 1.543478 -3.339131
0.043011 1.526882 -3.303226
0.053191 1.510638 -3.268085
4.000000 71.000000 -153.600006
0.375000 5.916667 -12.800000
0.416667 5.916667 -12.800000
0.458333 5.916667 -12.800000
0.500000 5.916667 -12.800000
3.250000 35.500000 -76.800003
3.500000 35.500000 -76.800003
3.750000 35.500000 -76.800003
2.666667 23.666666 -51.200001
2.833333 23.666666 -51.200001
2.250000 17.750000 -38.400002
1.416667 5.916667 -12.800000
1.458333 5.916667 -12.800000
1.384615 5.461538 -11.815385
1.423077 5.461538 -11.815385
1.727273 6.454545 -13.963637
1.392857 5.071429 -10.971429
4.000000 14.200000 -30.720001
4.100000 14.200000 -30.720001
4.200000 14.200000 -30.720001
0.750000 2.218750 -4.800000
1.139535 3.302325 -7.144186
1.428571 4.057143 -8.777143
1.186046 3.302325 -7.144186
1.238095 3.380952 -7.314286
1.261905 3.380952 -7.314286
1.200000 3.155555 -6.826667
1.250000 3.227273 -6.981819
1.244444 3.155555 -6.826667
1.390244 3.463415 -7.492683
1.380952 3.380952 -7.314286
32.000000 71.000000 -153.600006
32.500000 71.000000 -153.600006
0.323194 0.539924 -1.168061
0.326996 0.539924 -1.168061
0.312950 0.510791 -1.105036
0.316547 0.510791 -1.105036
0.320144 0.510791 -1.105036
0.335821 0.529851 -1.146269
0.338290 0.527881 -1.142007
0.340741 0.525926 -1.137778
0.339416 0.518248 -1.121168
0.343066 0.518248 -1.121168
0.346715 0.518248 -1.121168
0.350365 0.518248 -1.121168
0.354015 0.518248 -1.121168
0.355072 0.514493 -1.113044
0.358696 0.514493 -1.113044
0.359712 0.510791 -1.105036
0.363309 0.510791 -1.105036
0.364286 0.507143 -1.097143
0.367857 0.507143 -1.097143
0.368794 0.503546 -1.089362
0.372340 0.503546 -1.089362
0.373239 0.500000 -1.081690
0.376761 0.500000 -1.081690
0.377622 0.496504 -1.074126
0.379791 0.494774 -1.070383
0.381944 0.493056 -1.066667
0.385417 0.493056 -1.066667
0.386207 0.489655 -1.059310
0.389655 0.489655 -1.059310
0.390411 0.486301 -1.052055
0.392491 0.484642 -1.048464
0.394558 0.482993 -1.044898
0.397959 0.482993 -1.044898
0.398649 0.479730 -1.037838
0.400673 0.478114 -1.034343
0.402685 0.476510 -1.030873
0.406040 0.476510 -1.030873
0.406667 0.473333 -1.024000
0.410000 0.473333 -1.024000
0.410596 0.470199 -1.017219
0.412541 0.468647 -1.013861
0.414474 0.467105 -1.010526
0.416393 0.465574 -1.007213
0.418301 0.464052 -1.003922
0.403125 0.443750 -0.960000
0.406250 0.443750 -0.960000
0.409375 0.443750 -0.960000
0.412500 0.443750 -0.960000
0.415625 0.443750 -0.960000
11.166667 11.833333 -25.600000
11.250000 11.833333 -25.600000
11.333333 11.833333 -25.600000
0.434921 0.450794 -0.975238
0.436709 0.449367 -0.972152
11.583333 11.833333 -25.600000
0.440252 0.446541 -0.966038
7.833333 7.888889 -17.066668
5.916667 5.916667 -12.800000
10.214286 10.142858 -21.942858
10.285714 10.142858 -21.942858
10.357142 10.142858 -21.942858
10.428572 10.142858 -21.942858
9.187500 8.875000 -19.200001
10.571428 10.142858 -21.942858
7.450000 7.100000 -15.360001
7.500000 7.100000 -15.360001
7.550000 7.100000 -15.360001
19.000000 17.750000 -38.400002
19.125000 17.750000 -38.400002
11.000000 10.142858 -21.942858
11.071428 10.142858 -21.942858
11.142858 10.142858 -21.942858
11.214286 10.142858 -21.942858
11.285714 10.142858 -21.942858
11.357142 10.142858 -21.942858
11.428572 10.142858 -21.942858
11.500000 10.142858 -21.942858
9.000000 7.888889 -17.066668
9.055555 7.888889 -17.066668
10.250000 8.875000 -19.200001
10.312500 8.875000 -19.200001
10.375000 8.875000 -19.200001
10.437500 8.875000 -19.200001
16.799999 14.200000 -30.720001
42.250000 35.500000 -76.800003
42.500000 35.500000 -76.800003
17.100000 14.200000 -30.720001
17.200001 14.200000 -30.720001
28.833334 23.666666 -51.200001
29.000000 23.666666 -51.200001
29.166666 23.666666 -51.200001
29.333334 23.666666 -51.200001
29.500000 23.666666 -51.200001
44.500000 35.500000 -76.800003
44.750000 35.500000 -76.800003
45.000000 35.500000 -76.800003
45.250000 35.500000 -76.800003
45.500000 35.500000 -76.800003
45.750000 35.500000 -76.800003
46.000000 35.500000 -76.800003
46.250000 35.500000 -76.800003
46.500000 35.500000 -76.800003
46.750000 35.500000 -76.800003
47.000000 35.500000 -76.800003
47.250000 35.500000 -76.800003
47.500000 35.500000 -76.800003
-10.375000 8.812500 -19.200001
-10.312500 8.812500 -19.200001
-12.615385 10.846154 -23.630770
-4.342857 4.028572 -8.777143
-3.000000 3.065217 -6.678261
-2.978261 3.065217 -6.678261
-2.956522 3.065217 -6.678261
-2.934783 3.065217 -6.678261
-2.436364 2.563636 -5.585455
-13.100000 14.100000 -30.720001
-13.000000 14.100000 -30.720001
-12.900000 14.100000 -30.720001
-1.584906 2.660377 -5.796227
-5.187500 8.812500 -19.200001
-6.750000 11.750000 -25.600000
-6.666667 11.750000 -25.600000
-6.583333 11.750000 -25.600000
-6.500000 11.750000 -25.600000
-6.416667 11.750000 -25.600000
-6.333333 11.750000 -25.600000
-6.250000 11.750000 -25.600000
-6.166667 11.750000 -25.600000
-5.615385 10.846154 -23.630770
-5.538462 10.846154 -23.630770
-1.075758 2.136364 -4.654546
-0.857143 1.831169 -3.989610
-0.844156 1.831169 -3.989610
-0.831169 1.831169 -3.989610
-0.818182 1.831169 -3.989610
-0.805195 1.831169 -3.989610
-1.142857 2.877551 -6.269388
-1.122449 2.877551 -6.269388
-0.627907 1.639535 -3.572093
-0.609195 1.620690 -3.531035
-0.597701 1.620690 -3.531035
-0.586207 1.620690 -3.531035
-0.574713 1.620690 -3.531035
-1.531250 4.406250 -9.600000
-1.333333 3.916667 -8.533334
-1.305556 3.916667 -8.533334
-1.277778 3.916667 -8.533334
-0.478723 1.500000 -3.268085
-0.976190 3.357143 -7.314286
-1.025641 3.615385 -7.876924
-0.780000 2.820000 -6.144000
-0.730769 2.711539 -5.907692
-0.711538 2.711539 -5.907692
-0.692308 2.711539 -5.907692
-11.000000 141.000000 -307.200012
-2.500000 35.250000 -76.800003
-2.250000 35.250000 -76.800003
-2.000000 35.250000 -76.800003
-1.166667 23.500000 -51.200001
-1.000000 23.500000 -51.200001
-0.625000 17.625000 -38.400002
-0.500000 17.625000 -38.400002
-0.300000 14.100000 -30.720001
-0.200000 14.100000 -30.720001
-0.071429 10.071428 -21.942858
0.000000 1.639535 -3.572093
0.125000 17.625000 -38.400002
0.133333 9.400000 -20.480001
0.032258 1.516129 -3.303226
0.043011 1.516129 -3.303226
0.052632 1.484210 -3.233684
0.063158 1.484210 -3.233684
4.000000 70.500000 -153.600006
0.375000 5.875000 -12.800000
0.416667 5.875000 -12.800000
0.458333 5.875000 -12.800000
0.500000 5.875000 -12.800000
3.250000 35.250000 -76.800003
3.500000 35.250000 -76.800003
3.750000 35.250000 -76.800003
2.285714 20.142857 -43.885715
2.833333 23.500000 -51.200001
5.833333 23.500000 -51.200001
6.000000 23.500000 -51.200001
4.625000 17.625000 -38.400002
4.222222 15.666667 -34.133335
3.900000 14.100000 -30.720001
4.000000 14.100000 -30.720001
4.100000 14.100000 -30.720001
4.200000 14.100000 -30.720001
0.826923 2.711539 -5.907692
0.785714 2.517857 -5.485714
0.789474 2.473684 -5.389474
0.766667 2.350000 -5.120000
0.783333 2.350000 -5.120000
0.800000 2.350000 -5.120000
0.753846 2.169231 -4.726154
0.769231 2.169231 -4.726154
0.772727 2.136364 -4.654546
0.800000 2.169231 -4.726154
0.803030 2.136364 -4.654546
0.818182 2.136364 -4.654546
1.145833 2.937500 -6.400000
1.166667 2.937500 -6.400000
0.814286 2.014286 -4.388572
0.828571 2.014286 -4.388572
0.842857 2.014286 -4.388572
0.857143 2.014286 -4.388572
1.452381 3.357143 -7.314286
1.476190 3.357143 -7.314286
0.453237 1.014388 -2.210072
0.460432 1.014388 -2.210072
0.503876 1.093023 -2.381395
0.288210 0.615721 -1.341485
0.291304 0.613043 -1.335652
0.519084 1.076336 -2.345038
0.522727 1.068182 -2.327273
0.530303 1.068182 -2.327273
0.315589 0.536122 -1.168061
0.319392 0.536122 -1.168061
0.323194 0.536122 -1.168061
0.322097 0.528090 -1.150562
0.312950 0.507194 -1.105036
0.316547 0.507194 -1.105036
0.320144 0.507194 -1.105036
0.335821 0.526119 -1.146269
0.338290 0.524164 -1.142007
0.340741 0.522222 -1.137778
0.339416 0.514599 -1.121168
0.343066 0.514599 -1.121168
0.346715 0.514599 -1.121168
0.350365 0.514599 -1.121168
0.354015 0.514599 -1.121168
0.355072 0.510870 -1.113044
0.358696 0.510870 -1.113044
0.359712 0.507194 -1.105036
0.363309 0.507194 -1.105036
0.364286 0.503571 -1.097143
0.367857 0.503571 -1.097143
0.368794 0.500000 -1.089362
0.372340 0.500000 -1.089362
0.373239 0.496479 -1.081690
0.376761 0.496479 -1.081690
0.377622 0.493007 -1.074126
0.379791 0.491289 -1.070383
0.381944 0.489583 -1.066667
0.385417 0.489583 -1.066667
0.386207 0.486207 -1.059310
0.389655 0.486207 -1.059310
0.390411 0.482877 -1.052055
0.392491 0.481229 -1.048464
0.394558 0.479592 -1.044898
0.397959 0.479592 -1.044898
0.398649 0.476351 -1.037838
0.400673 0.474747 -1.034343
0.402685 0.473154 -1.030873
0.406040 0.473154 -1.030873
0.406667 0.470000 -1.024000
0.410000 0.470000 -1.024000
0.410596 0.466887 -1.017219
0.412541 0.465347 -1.013861
0.414474 0.463816 -1.010526
0.416393 0.462295 -1.007213
0.418301 0.460784 -1.003922
0.403125 0.440625 -0.960000
0.406250 0.440625 -0.960000
0.409375 0.440625 -0.960000
0.412500 0.440625 -0.960000
0.415625 0.440625 -0.960000
0.413580 0.435185 -0.948148
0.416667 0.435185 -0.948148
0.419753 0.435185 -0.948148
0.422839 0.435185 -0.948148
0.436709 0.446203 -0.972152
0.438486 0.444795 -0.969085
0.440252 0.443396 -0.966038
0.429878 0.429878 -0.936585
0.426426 0.423423 -0.922523
0.429429 0.423423 -0.922523
0.432432 0.423423 -0.922523
0.439394 0.427273 -0.930909
0.442424 0.427273 -0.930909
0.440120 0.422156 -0.919761
0.443114 0.422156 -0.919761
7.450000 7.050000 -15.360001
7.500000 7.050000 -15.360001
7.550000 7.050000 -15.360001
8.444445 7.833333 -17.066668
15.300000 14.100000 -30.720001
11.000000 10.071428 -21.942858
11.071428 10.071428 -21.942858
11.142858 10.071428 -21.942858
11.214286 10.071428 -21.942858
11.285714 10.071428 -21.942858
11.357142 10.071428 -21.942858
11.428572 10.071428 -21.942858
11.500000 10.071428 -21.942858
8.526316 7.421052 -16.168421
9.055555 7.833333 -17.066668
10.250000 8.812500 -19.200001
10.312500 8.812500 -19.200001
10.375000 8.812500 -19.200001
10.437500 8.812500 -19.200001
9.333333 7.833333 -17.066668
42.250000 35.250000 -76.800003
42.500000 35.250000 -76.800003
17.100000 14.100000 -30.720001
17.200001 14.100000 -30.720001
28.833334 23.500000 -51.200001
29.000000 23.500000 -51.200001
29.166666 23.500000 -51.200001
29.333334 23.500000 -51.200001
29.500000 23.500000 -51.200001
44.500000 35.250000 -76.800003
44.750000 35.250000 -76.800003
45.000000 35.250000 -76.800003
45.250000 35.250000 -76.800003
45.500000 35.250000 -76.800003
45.750000 35.250000 -76.800003
46.000000 35.250000 -76.800003
46.250000 35.250000 -76.800003
46.500000 35.250000 -76.800003
46.750000 35.250000 -76.800003
47.000000 35.250000 -76.800003
47.250000 35.250000 -76.800003
47.500000 35.250000 -76.800003
-10.375000 8.750000 -19.200001
-10.312500 8.750000 -19.200001
-12.615385 10.769231 -23.630770
-4.222222 3.888889 -8.533334
-13.100000 14.000000 -30.720001
-13.000000 14.000000 -30.720001
-12.900000 14.000000 -30.720001
-5.187500 8.750000 -19.200001
-6.750000 11.666667 -25.600000
-6.666667 11.666667 -25.600000
-6.583333 11.666667 -25.600000
-6.500000 11.666667 -25.600000
-6.416667 11.666667 -25.600000
-6.333333 11.666667 -25.600000
-6.250000 11.666667 -25.600000
-6.166667 11.666667 -25.600000
-6.083333 11.666667 -25.600000
-6.000000 11.666667 -25.600000
-1.075758 2.121212 -4.654546
-1.060606 2.121212 -4.654546
-0.857143 1.818182 -3.989610
-0.844156 1.818182 -3.989610
-0.831169 1.818182 -3.989610
-0.818182 1.818182 -3.989610
-0.805195 1.818182 -3.989610
-2.761905 6.666667 -14.628572
-1.166667 2.916667 -6.400000
-1.037736 2.641510 -5.796227
-0.627907 1.627907 -3.572093
-0.609195 1.609195 -3.531035
-0.597701 1.609195 -3.531035
-0.586207 1.609195 -3.531035
-0.495050 1.386139 -3.041584
-1.531250 4.375000 -9.600000
-1.333333 3.888889 -8.533334
-1.305556 3.888889 -8.533334
-1.277778 3.888889 -8.533334
-0.478723 1.489362 -3.268085
-1.189189 3.783784 -8.302703
-0.976190 3.333333 -7.314286
-0.800000 2.800000 -6.144000
-0.780000 2.800000 -6.144000
-0.730769 2.692308 -5.907692
-0.711538 2.692308 -5.907692
-0.692308 2.692308 -5.907692
-0.648148 2.592592 -5.688889
-0.629630 2.592592 -5.688889
-11.000000 140.000000 -307.200012
-3.333333 46.666668 -102.400002
-2.250000 35.000000 -76.800003
-2.000000 35.000000 -76.800003
-1.166667 23.333334 -51.200001
-1.000000 23.333334 -51.200001
-0.625000 17.500000 -38.400002
-0.500000 17.500000 -38.400002
-0.300000 14.000000 -30.720001
-0.250000 17.500000 -38.400002
-0.011765 1.647059 -3.614118
0.000000 1.627907 -3.572093
0.011628 1.627907 -3.572093
0.133333 9.333333 -20.480001
0.031579 1.473684 -3.233684
0.042105 1.473684 -3.233684
0.052632 1.473684 -3.233684
0.063158 1.473684 -3.233684
3.500000 70.000000 -153.600006
4.000000 70.000000 -153.600006
0.375000 5.833333 -12.800000
0.416667 5.833333 -12.800000
0.458333 5.833333 -12.800000
0.500000 5.833333 -12.800000
6.500000 70.000000 -153.600006
7.000000 70.000000 -153.600006
3.750000 35.000000 -76.800003
2.285714 20.000000 -43.885715
2.833333 23.333334 -51.200001
4.375000 17.500000 -38.400002
4.000000 15.555555 -34.133335
4.111111 15.555555 -34.133335
4.222222 15.555555 -34.133335
4.333333 15.555555 -34.133335
4.000000 14.000000 -30.720001
5.857143 20.000000 -43.885715
4.666667 15.555555 -34.133335
0.843137 2.745098 -6.023530
0.341085 1.085271 -2.381395
0.789474 2.456140 -5.389474
0.338235 1.029412 -2.258824
0.345588 1.029412 -2.258824
0.350365 1.021898 -2.242336
0.753846 2.153846 -4.726154
0.769231 2.153846 -4.726154
0.772727 2.121212 -4.654546
0.800000 2.153846 -4.726154
0.803030 2.121212 -4.654546
0.818182 2.121212 -4.654546
1.145833 2.916667 -6.400000
1.166667 2.916667 -6.400000
0.814286 2.000000 -4.388572
1.452381 3.333333 -7.314286
1.476190 3.333333 -7.314286
0.453237 1.007194 -2.210072
0.460432 1.007194 -2.210072
0.306604 0.660377 -1.449057
0.288210 0.611354 -1.341485
0.292576 0.611354 -1.341485
0.519084 1.068702 -2.345038
0.522727 1.060606 -2.327273
0.530303 1.060606 -2.327273
0.315589 0.532319 -1.168061
0.319392 0.532319 -1.168061
0.323194 0.532319 -1.168061
0.322097 0.524345 -1.150562
0.312950 0.503597 -1.105036
0.316547 0.503597 -1.105036
0.320144 0.503597 -1.105036
0.335821 0.522388 -1.146269
0.338290 0.520446 -1.142007
0.342007 0.520446 -1.142007
0.339416 0.510949 -1.121168
0.345588 0.514706 -1.129412
0.349265 0.514706 -1.129412
0.352941 0.514706 -1.129412
0.354015 0.510949 -1.121168
0.355072 0.507246 -1.113044
0.358696 0.507246 -1.113044
0.359712 0.503597 -1.105036
0.363309 0.503597 -1.105036
0.364286 0.500000 -1.097143
0.367857 0.500000 -1.097143
0.368794 0.496454 -1.089362
0.372340 0.496454 -1.089362
0.373239 0.492958 -1.081690
0.376761 0.492958 -1.081690
0.377622 0.489510 -1.074126
0.379791 0.487805 -1.070383
0.381944 0.486111 -1.066667
0.385417 0.486111 -1.066667
0.386207 0.482759 -1.059310
0.389655 0.482759 -1.059310
0.390411 0.479452 -1.052055
0.392491 0.477816 -1.048464
0.394558 0.476190 -1.044898
0.397959 0.476190 -1.044898
0.398649 0.472973 -1.037838
0.400673 0.471380 -1.034343
0.402685 0.469799 -1.030873
0.406040 0.469799 -1.030873
0.406667 0.466667 -1.024000
0.408638 0.465116 -1.020598
0.410596 0.463576 -1.017219
0.412541 0.462046 -1.013861
0.414474 0.460526 -1.010526
0.416393 0.459016 -1.007213
0.418301 0.457516 -1.003922
0.403125 0.437500 -0.960000
0.406250 0.437500 -0.960000
0.409375 0.437500 -0.960000
0.409938 0.434783 -0.954037
0.413043 0.434783 -0.954037
0.413580 0.432099 -0.948148
0.416667 0.432099 -0.948148
0.433121 0.445860 -0.978344
0.422839 0.432099 -0.948148
0.436709 0.443038 -0.972152
0.438486 0.441640 -0.969085
0.440252 0.440252 -0.966038
0.429878 0.426829 -0.936585
0.426426 0.420420 -0.922523
0.429429 0.420420 -0.922523
0.432432 0.420420 -0.922523
0.435435 0.420420 -0.922523
0.437126 0.419162 -0.919761
0.440120 0.419162 -0.919761
0.436578 0.412979 -0.906195
0.439528 0.412979 -0.906195
0.442478 0.412979 -0.906195
5.033333 4.666667 -10.240001
9.500000 8.750000 -19.200001
15.300000 14.000000 -30.720001
11.000000 10.000000 -21.942858
11.071428 10.000000 -21.942858
11.142858 10.000000 -21.942858
11.214286 10.000000 -21.942858
11.285714 10.000000 -21.942858
11.357142 10.000000 -21.942858
11.428572 10.000000 -21.942858
20.125000 17.500000 -38.400002
20.250000 17.500000 -38.400002
20.375000 17.500000 -38.400002
10.250000 8.750000 -19.200001
10.312500 8.750000 -19.200001
10.375000 8.750000 -19.200001
10.437500 8.750000 -19.200001
10.500000 8.750000 -19.200001
42.250000 35.000000 -76.800003
42.500000 35.000000 -76.800003
42.750000 35.000000 -76.800003
43.000000 35.000000 -76.800003
43.250000 35.000000 -76.800003
43.500000 35.000000 -76.800003
43.750000 35.000000 -76.800003
44.000000 35.000000 -76.800003
44.250000 35.000000 -76.800003
44.500000 35.000000 -76.800003
44.750000 35.000000 -76.800003
45.000000 35.000000 -76.800003
45.250000 35.000000 -76.800003
45.500000 35.000000 -76.800003
45.750000 35.000000 -76.800003
46.000000 35.000000 -76.800003
46.250000 35.000000 -76.800003
46.500000 35.000000 -76.800003
46.750000 35.000000 -76.800003
47.000000 35.000000 -76.800003
47.250000 35.000000 -76.800003
47.500000 35.000000 -76.800003
-10.375000 8.687500 -19.200001
-10.312500 8.687500 -19.200001
-12.615385 10.692307 -23.630770
-4.222222 3.861111 -8.533334
-13.100000 13.900000 -30.720001
-13.000000 13.900000 -30.720001
-12.900000 13.900000 -30.720001
-5.187500 8.687500 -19.200001
-6.750000 11.583333 -25.600000
-6.666667 11.583333 -25.600000
-6.583333 11.583333 -25.600000
-6.500000 11.583333 -25.600000
-6.416667 11.583333 -25.600000
-6.333333 11.583333 -25.600000
-6.250000 11.583333 -25.600000
-6.166667 11.583333 -25.600000
-6.083333 11.583333 -25.600000
-6.000000 11.583333 -25.600000
-1.075758 2.106061 -4.654546
-1.060606 2.106061 -4.654546
-0.844156 1.805195 -3.989610
-0.831169 1.805195 -3.989610
-0.818182 1.805195 -3.989610
-0.805195 1.805195 -3.989610
-2.761905 6.619048 -14.628572
-1.166667 2.895833 -6.400000
-0.450820 1.139344 -2.518033
-1.459459 3.756757 -8.302703
-10.600000 27.799999 -61.440002
-10.400000 27.799999 -61.440002
-10.200000 27.799999 -61.440002
-0.495050 1.376238 -3.041584
-0.485149 1.376238 -3.041584
-1.333333 3.861111 -8.533334
-1.305556 3.861111 -8.533334
-1.277778 3.861111 -8.533334
-0.478723 1.478723 -3.268085
-0.976190 3.309524 -7.314286
-0.952381 3.309524 -7.314286
-0.780000 2.780000 -6.144000
-0.730769 2.673077 -5.907692
-0.711538 2.673077 -5.907692
-0.692308 2.673077 -5.907692
-0.673077 2.673077 -5.907692
-0.629630 2.574074 -5.688889
-0.592593 2.574074 -5.688889
-13.000000 139.000000 -307.200012
-12.000000 139.000000 -307.200012
-11.000000 139.000000 -307.200012
-3.333333 46.333332 -102.400002
-2.250000 34.750000 -76.800003
-2.000000 34.750000 -76.800003
-1.166667 23.166666 -51.200001
-1.000000 23.166666 -51.200001
-0.833333 23.166666 -51.200001
-0.500000 17.375000 -38.400002
-0.300000 13.900000 -30.720001
-0.250000 17.375000 -38.400002
-0.125000 17.375000 -38.400002
0.000000 17.375000 -38.400002
0.125000 17.375000 -38.400002
0.133333 9.266666 -20.480001
0.200000 9.266666 -20.480001
0.042105 1.463158 -3.233684
0.052632 1.463158 -3.233684
0.063158 1.463158 -3.233684
0.318182 6.318182 -13.963637
0.363636 6.318182 -13.963637
0.375000 5.791667 -12.800000
0.416667 5.791667 -12.800000
0.458333 5.791667 -12.800000
0.500000 5.791667 -12.800000
0.541667 5.791667 -12.800000
0.538462 5.346154 -11.815385
0.576923 5.346154 -11.815385
0.551724 4.793103 -10.593103
0.607143 4.964286 -10.971429
0.620690 4.793103 -10.593103
4.750000 34.750000 -76.800003
5.000000 34.750000 -76.800003
3.500000 13.900000 -30.720001
3.272727 12.636364 -27.927275
3.700000 13.900000 -30.720001
4.222222 15.444445 -34.133335
3.900000 13.900000 -30.720001
5.714286 19.857143 -43.885715
5.857143 19.857143 -43.885715
4.666667 15.444445 -34.133335
0.826923 2.673077 -5.907692
0.341085 1.077519 -2.381395
0.348837 1.077519 -2.381395
0.340741 1.029630 -2.275556
0.345588 1.022059 -2.258824
0.350365 1.014598 -2.242336
0.357664 1.014598 -2.242336
0.757576 2.106061 -4.654546
0.772727 2.106061 -4.654546
0.800000 2.138462 -4.726154
0.803030 2.106061 -4.654546
0.818182 2.106061 -4.654546
1.145833 2.895833 -6.400000
1.142857 2.836735 -6.269388
0.814286 1.985714 -4.388572
0.414966 0.945578 -2.089796
0.446043 1.000000 -2.210072
0.453237 1.000000 -2.210072
0.496124 1.077519 -2.381395
0.306604 0.655660 -1.449057
0.288210 0.606987 -1.341485
0.292576 0.606987 -1.341485
0.519084 1.061069 -2.345038
0.522727 1.053030 -2.327273
0.530303 1.053030 -2.327273
0.315589 0.528517 -1.168061
0.319392 0.528517 -1.168061
0.323194 0.528517 -1.168061
0.322097 0.520599 -1.150562
0.328302 0.524528 -1.159245
0.332075 0.524528 -1.159245
0.317857 0.496429 -1.097143
0.335821 0.518657 -1.146269
0.338290 0.516729 -1.142007
0.342007 0.516729 -1.142007
0.340659 0.509158 -1.125275
0.345588 0.511029 -1.129412
0.349265 0.511029 -1.129412
0.352941 0.511029 -1.129412
0.352727 0.505455 -1.117091
0.355072 0.503623 -1.113044
0.357401 0.501805 -1.109025
0.359712 0.500000 -1.105036
0.363309 0.500000 -1.105036
0.364286 0.496429 -1.097143
0.367857 0.496429 -1.097143
0.368794 0.492908 -1.089362
0.372340 0.492908 -1.089362
0.373239 0.489437 -1.081690
0.376761 0.489437 -1.081690
0.377622 0.486014 -1.074126
0.379791 0.484321 -1.070383
0.381944 0.482639 -1.066667
0.385417 0.482639 -1.066667
0.386207 0.479310 -1.059310
0.389655 0.479310 -1.059310
0.390411 0.476027 -1.052055
0.393836 0.476027 -1.052055
0.394558 0.472789 -1.044898
0.396610 0.471186 -1.041356
0.398649 0.469595 -1.037838
0.400673 0.468013 -1.034343
0.402685 0.466443 -1.030873
0.387821 0.445513 -0.984615
0.391026 0.445513 -0.984615
0.394231 0.445513 -0.984615
0.394904 0.442675 -0.978344
0.398089 0.442675 -0.978344
0.398734 0.439873 -0.972152
0.401899 0.439873 -0.972152
0.418301 0.454248 -1.003922
0.403125 0.434375 -0.960000
0.406250 0.434375 -0.960000
0.409375 0.434375 -0.960000
0.411215 0.433022 -0.957009
0.414330 0.433022 -0.957009
0.413580 0.429012 -0.948148
0.416667 0.429012 -0.948148
0.433121 0.442675 -0.978344
0.417683 0.423781 -0.936585
0.420732 0.423781 -0.936585
0.423781 0.423781 -0.936585
0.425532 0.422492 -0.933739
0.428571 0.422492 -0.933739
0.430303 0.421212 -0.930909
0.433333 0.421212 -0.930909
0.433735 0.418675 -0.925301
0.435435 0.417417 -0.922523
0.437126 0.416168 -0.919761
0.440120 0.416168 -0.919761
0.439169 0.412463 -0.911573
0.442136 0.412463 -0.911573
0.445104 0.412463 -0.911573
5.033333 4.633333 -10.240001
9.500000 8.687500 -19.200001
15.300000 13.900000 -30.720001
11.000000 9.928572 -21.942858
11.071428 9.928572 -21.942858
9.750000 8.687500 -19.200001
11.214286 9.928572 -21.942858
11.285714 9.928572 -21.942858
11.357142 9.928572 -21.942858
11.428572 9.928572 -21.942858
20.125000 17.375000 -38.400002
20.250000 17.375000 -38.400002
20.375000 17.375000 -38.400002
10.250000 8.687500 -19.200001
10.312500 8.687500 -19.200001
10.375000 8.687500 -19.200001
10.437500 8.687500 -19.200001
28.000000 23.166666 -51.200001
42.250000 34.750000 -76.800003
42.500000 34.750000 -76.800003
42.750000 34.750000 -76.800003
43.000000 34.750000 -76.800003
43.250000 34.750000 -76.800003
43.500000 34.750000 -76.800003
43.750000 34.750000 -76.800003
44.000000 34.750000 -76.800003
44.250000 34.750000 -76.800003
44.500000 34.750000 -76.800003
44.750000 34.750000 -76.800003
45.000000 34.750000 -76.800003
45.250000 34.750000 -76.800003
45.500000 34.750000 -76.800003
45.750000 34.750000 -76.800003
46.000000 34.750000 -76.800003
46.250000 34.750000 -76.800003
46.500000 34.750000 -76.800003
46.750000 34.750000 -76.800003
47.000000 34.750000 -76.800003
47.250000 34.750000 -76.800003
47.500000 34.750000 -76.800003
-10.312500 8.625000 -19.200001
-12.615385 10.615385 -23.630770
-4.222222 3.833333 -8.533334
-13.100000 13.800000 -30.720001
-13.000000 13.800000 -30.720001
-12.900000 13.800000 -30.720001
-1.965517 2.379310 -5.296552
-5.187500 8.625000 -19.200001
-6.750000 11.500000 -25.600000
-6.666667 11.500000 -25.600000
-6.583333 11.500000 -25.600000
-6.500000 11.500000 -25.600000
-6.416667 11.500000 -25.600000
-6.333333 11.500000 -25.600000
-6.250000 11.500000 -25.600000
-6.166667 11.500000 -25.600000
-6.083333 11.500000 -25.600000
-6.000000 11.500000 -25.600000
-1.075758 2.090909 -4.654546
-1.060606 2.090909 -4.654546
-1.533333 3.066667 -6.826667
-2.346154 5.307693 -11.815385
-2.307692 5.307693 -11.815385
-2.269231 5.307693 -11.815385
-2.761905 6.571429 -14.628572
-1.513514 3.729730 -8.302703
-1.486486 3.729730 -8.302703
-1.459459 3.729730 -8.302703
-10.400000 27.600000 -61.440002
-10.200000 27.600000 -61.440002
-0.495050 1.366337 -3.041584
-1.333333 3.833333 -8.533334
-1.305556 3.833333 -8.533334
-1.277778 3.833333 -8.533334
-0.478723 1.468085 -3.268085
-1.189189 3.729730 -8.302703
-1.023810 3.285714 -7.314286
-1.000000 3.285714 -7.314286
-0.976190 3.285714 -7.314286
-0.952381 3.285714 -7.314286
-0.780000 2.760000 -6.144000
-0.730769 2.653846 -5.907692
-0.711538 2.653846 -5.907692
-0.692308 2.653846 -5.907692
-0.673077 2.653846 -5.907692
-0.629630 2.555556 -5.688889
-0.634615 2.653846 -5.907692
-0.592593 2.555556 -5.688889
-0.563636 2.509091 -5.585455
-0.535714 2.464286 -5.485714
-0.491525 2.338983 -5.206780
-0.491228 2.421053 -5.389474
-0.457627 2.338983 -5.206780
-13.000000 138.000000 -307.200012
-12.000000 138.000000 -307.200012
-11.000000 138.000000 -307.200012
-3.333333 46.000000 -102.400002
-2.250000 34.500000 -76.800003
-2.000000 34.500000 -76.800003
-1.166667 23.000000 -51.200001
-1.000000 23.000000 -51.200001
-0.833333 23.000000 -51.200001
-0.500000 17.250000 -38.400002
-0.375000 17.250000 -38.400002
-0.250000 17.250000 -38.400002
-0.125000 17.250000 -38.400002
0.000000 17.250000 -38.400002
0.125000 17.250000 -38.400002
0.133333 9.200000 -20.480001
0.200000 9.200000 -20.480001
1.000000 34.500000 -76.800003
0.227273 6.272727 -13.963637
0.272727 6.272727 -13.963637
0.318182 6.272727 -13.963637
0.363636 6.272727 -13.963637
0.375000 5.750000 -12.800000
0.416667 5.750000 -12.800000
0.500000 6.272727 -13.963637
0.500000 5.750000 -12.800000
0.541667 5.750000 -12.800000
0.518519 5.111111 -11.377778
0.576923 5.307693 -11.815385
0.592593 5.111111 -11.377778
0.607143 4.928571 -10.971429
0.620690 4.758621 -10.593103
0.633333 4.600000 -10.240001
0.645161 4.451613 -9.909678
0.656250 4.312500 -9.600000
1.375000 8.625000 -19.200001
1.210526 7.263158 -16.168421
1.200000 6.900000 -15.360001
0.735294 4.058824 -9.035295
0.764706 4.058824 -9.035295
0.794118 4.058824 -9.035295
0.823529 4.058824 -9.035295
0.852941 4.058824 -9.035295
0.882353 4.058824 -9.035295
0.911765 4.058824 -9.035295
0.914286 3.942857 -8.777143
0.916667 3.833333 -8.533334
0.918919 3.729730 -8.302703
1.055556 3.833333 -8.533334
5.571429 19.714285 -43.885715
0.714286 2.464286 -5.485714
0.803922 2.705882 -6.023530
0.840000 2.760000 -6.144000
0.860000 2.760000 -6.144000
0.785714 2.464286 -5.485714
0.348837 1.069767 -2.381395
0.359375 1.078125 -2.400000
0.345588 1.014706 -2.258824
0.350365 1.007299 -2.242336
0.357664 1.007299 -2.242336
0.769231 2.123077 -4.726154
0.772727 2.090909 -4.654546
0.800000 2.123077 -4.726154
0.803030 2.090909 -4.654546
0.818182 2.090909 -4.654546
0.820895 2.059701 -4.585075
0.811594 2.000000 -4.452174
0.814286 1.971429 -4.388572
0.828571 1.971429 -4.388572
0.842857 1.971429 -4.388572
0.857143 1.971429 -4.388572
0.414966 0.938776 -2.089796
0.446043 0.992806 -2.210072
0.453237 0.992806 -2.210072
0.496124 1.069767 -2.381395
0.281385 0.597403 -1.329870
0.288210 0.602620 -1.341485
0.292576 0.602620 -1.341485
0.519084 1.053435 -2.345038
0.368984 0.737968 -1.642781
0.530303 1.045455 -2.327273
0.315589 0.524715 -1.168061
0.319392 0.524715 -1.168061
0.318352 0.516854 -1.150562
0.322097 0.516854 -1.150562
0.328302 0.520755 -1.159245
0.332075 0.520755 -1.159245
0.317857 0.492857 -1.097143
0.335821 0.514925 -1.146269
0.338290 0.513011 -1.142007
0.342007 0.513011 -1.142007
0.340659 0.505495 -1.125275
0.345588 0.507353 -1.129412
0.349265 0.507353 -1.129412
0.352941 0.507353 -1.129412
0.352727 0.501818 -1.117091
0.355072 0.500000 -1.113044
0.357401 0.498195 -1.109025
0.359712 0.496403 -1.105036
0.363309 0.496403 -1.105036
0.364286 0.492857 -1.097143
0.367857 0.492857 -1.097143
0.368794 0.489362 -1.089362
0.372340 0.489362 -1.089362
0.373239 0.485915 -1.081690
0.376761 0.485915 -1.081690
0.377622 0.482517 -1.074126
0.379791 0.480836 -1.070383
0.381944 0.479167 -1.066667
0.385417 0.479167 -1.066667
0.386207 0.475862 -1.059310
0.388316 0.474227 -1.055670
0.390411 0.472603 -1.052055
0.393836 0.472603 -1.052055
0.394558 0.469388 -1.044898
0.396610 0.467797 -1.041356
0.398649 0.466216 -1.037838
0.383871 0.445161 -0.990968
0.387097 0.445161 -0.990968
0.390323 0.445161 -0.990968
0.406667 0.460000 -1.024000
0.391720 0.439490 -0.978344
0.394904 0.439490 -0.978344
0.398089 0.439490 -0.978344
0.398734 0.436709 -0.972152
0.401899 0.436709 -0.972152
0.418301 0.450980 -1.003922
0.403125 0.431250 -0.960000
0.406250 0.431250 -0.960000
0.409375 0.431250 -0.960000
0.411215 0.429907 -0.957009
0.414330 0.429907 -0.957009
0.413580 0.425926 -0.948148
0.416667 0.425926 -0.948148
0.417178 0.423313 -0.942331
0.420245 0.423313 -0.942331
0.420732 0.420732 -0.936585
0.423781 0.420732 -0.936585
0.424242 0.418182 -0.930909
0.427273 0.418182 -0.930909
0.430303 0.418182 -0.930909
0.433333 0.418182 -0.930909
0.433735 0.415663 -0.925301
0.435435 0.414414 -0.922523
0.435821 0.411940 -0.917015
0.438806 0.411940 -0.917015
0.437870 0.408284 -0.908876
0.440828 0.408284 -0.908876
0.443787 0.408284 -0.908876
5.033333 4.600000 -10.240001
5.428571 4.928571 -10.971429
15.300000 13.800000 -30.720001
11.000000 9.857142 -21.942858
11.071428 9.857142 -21.942858
11.142858 9.857142 -21.942858
11.214286 9.857142 -21.942858
11.285714 9.857142 -21.942858
11.357142 9.857142 -21.942858
11.428572 9.857142 -21.942858
20.125000 17.250000 -38.400002
20.250000 17.250000 -38.400002
20.375000 17.250000 -38.400002
10.250000 8.625000 -19.200001
10.312500 8.625000 -19.200001
10.375000 8.625000 -19.200001
10.437500 8.625000 -19.200001
28.000000 23.000000 -51.200001
42.250000 34.500000 -76.800003
42.500000 34.500000 -76.800003
42.750000 34.500000 -76.800003
43.000000 34.500000 -76.800003
43.250000 34.500000 -76.800003
43.500000 34.500000 -76.800003
43.750000 34.500000 -76.800003
44.000000 34.500000 -76.800003
44.250000 34.500000 -76.800003
44.500000 34.500000 -76.800003
44.750000 34.500000 -76.800003
90.000000 69.000000 -153.600006
90.500000 69.000000 -153.600006
91.500000 69.000000 -153.600006
92.000000 69.000000 -153.600006
92.500000 69.000000 -153.600006
93.000000 69.000000 -153.600006
93.500000 69.000000 -153.600006
94.000000 69.000000 -153.600006
94.500000 69.000000 -153.600006
95.000000 69.000000 -153.600006
-62.000000 45.666668 -102.400002
-12.615385 10.538462 -23.630770
-4.222222 3.805556 -8.533334
-13.100000 13.700000 -30.720001
-13.000000 13.700000 -30.720001
-12.900000 13.700000 -30.720001
-1.965517 2.362069 -5.296552
-1.883333 2.283333 -5.120000
-5.187500 8.562500 -19.200001
-6.750000 11.416667 -25.600000
-6.666667 11.416667 -25.600000
-6.583333 11.416667 -25.600000
-6.500000 11.416667 -25.600000
-6.416667 11.416667 -25.600000
-6.333333 11.416667 -25.600000
-6.250000 11.416667 -25.600000
-6.166667 11.416667 -25.600000
-5.615385 10.538462 -23.630770
-6.000000 11.416667 -25.600000
-1.060606 2.075758 -4.654546
-3.210526 7.210526 -16.168421
-2.307692 5.269231 -11.815385
-2.269231 5.269231 -11.815385
-2.761905 6.523809 -14.628572
-1.513514 3.702703 -8.302703
-1.486486 3.702703 -8.302703
-1.459459 3.702703 -8.302703
-0.726027 1.876712 -4.208220
-10.200000 27.400000 -61.440002
-10.000000 27.400000 -61.440002
-1.333333 3.805556 -8.533334
-1.305556 3.805556 -8.533334
-1.277778 3.805556 -8.533334
-1.216216 3.702703 -8.302703
-1.189189 3.702703 -8.302703
-1.023810 3.261905 -7.314286
-1.000000 3.261905 -7.314286
-0.976190 3.261905 -7.314286
-0.454545 1.556818 -3.490909
-0.780000 2.740000 -6.144000
-0.745098 2.686275 -6.023530
-0.711538 2.634615 -5.907692
-0.692308 2.634615 -5.907692
-0.700000 2.740000 -6.144000
-0.629630 2.537037 -5.688889
-0.634615 2.634615 -5.907692
-0.592593 2.537037 -5.688889
-0.563636 2.490909 -5.585455
-0.600000 2.740000 -6.144000
-0.568627 2.686275 -6.023530
-0.538462 2.634615 -5.907692
-0.509434 2.584906 -5.796227
-0.481481 2.537037 -5.688889
-13.000000 137.000000 -307.200012
-12.000000 137.000000 -307.200012
-11.000000 137.000000 -307.200012
-3.333333 45.666668 -102.400002
-2.250000 34.250000 -76.800003
-1.333333 22.833334 -51.200001
-1.166667 22.833334 -51.200001
-1.000000 22.833334 -51.200001
-0.833333 22.833334 -51.200001
-0.500000 17.125000 -38.400002
-0.375000 17.125000 -38.400002
-0.153846 10.538462 -23.630770
-0.071429 9.785714 -21.942858
0.000000 17.125000 -38.400002
0.125000 17.125000 -38.400002
0.250000 17.125000 -38.400002
0.200000 9.133333 -20.480001
1.000000 34.250000 -76.800003
1.250000 34.250000 -76.800003
0.272727 6.227273 -13.963637
0.318182 6.227273 -13.963637
0.363636 6.227273 -13.963637
0.375000 5.708333 -12.800000
0.416667 5.708333 -12.800000
0.500000 6.227273 -13.963637
0.500000 5.708333 -12.800000
1.625000 17.125000 -38.400002
0.518519 5.074074 -11.377778
0.576923 5.269231 -11.815385
0.615385 5.269231 -11.815385
0.680000 5.480000 -12.288000
0.720000 5.480000 -12.288000
0.760000 5.480000 -12.288000
0.800000 5.480000 -12.288000
0.840000 5.480000 -12.288000
0.880000 5.480000 -12.288000
0.884615 5.269231 -11.815385
0.888889 5.074074 -11.377778
0.892857 4.892857 -10.971429
0.896552 4.724138 -10.593103
0.900000 4.566667 -10.240001
0.903226 4.419355 -9.909678
0.906250 4.281250 -9.600000
0.909091 4.151515 -9.309092
0.911765 4.029412 -9.035295
0.914286 3.914286 -8.777143
0.916667 3.805556 -8.533334
0.918919 3.702703 -8.302703
0.921053 3.605263 -8.084210
0.923077 3.512820 -7.876924
0.973684 3.605263 -8.084210
1.000000 3.605263 -8.084210
5.571429 19.571428 -43.885715
0.714286 2.446429 -5.485714
0.820000 2.740000 -6.144000
0.840000 2.740000 -6.144000
0.860000 2.740000 -6.144000
0.785714 2.446429 -5.485714
0.348837 1.062016 -2.381395
0.359375 1.070312 -2.400000
0.367188 1.070312 -2.400000
0.352941 1.007353 -2.258824
0.357664 1.000000 -2.242336
0.381679 1.045802 -2.345038
0.772727 2.075758 -4.654546
0.787879 2.075758 -4.654546
0.803030 2.075758 -4.654546
0.818182 2.075758 -4.654546
0.820895 2.044776 -4.585075
0.811594 1.985507 -4.452174
0.814286 1.957143 -4.388572
0.420290 0.992754 -2.226087
0.842857 1.957143 -4.388572
0.431655 0.985611 -2.210072
0.472868 1.062016 -2.381395
0.446043 0.985611 -2.210072
0.453237 0.985611 -2.210072
0.496124 1.062016 -2.381395
0.305164 0.643192 -1.442254
0.286957 0.595652 -1.335652
0.291304 0.595652 -1.335652
0.317757 0.640187 -1.435514
0.522727 1.037879 -2.327273
0.327103 0.640187 -1.435514
0.316794 0.522901 -1.172519
0.320611 0.522901 -1.172519
0.320755 0.516981 -1.159245
0.324528 0.516981 -1.159245
0.328302 0.516981 -1.159245
0.332075 0.516981 -1.159245
0.335849 0.516981 -1.159245
0.338346 0.515038 -1.154887
0.340824 0.513109 -1.150562
0.343284 0.511194 -1.146269
0.345725 0.509294 -1.142007
0.349442 0.509294 -1.142007
0.353160 0.509294 -1.142007
0.352941 0.503676 -1.129412
0.355311 0.501832 -1.125275
0.357664 0.500000 -1.121168
0.360000 0.498182 -1.117091
0.362319 0.496377 -1.113044
0.364621 0.494585 -1.109025
0.366906 0.492806 -1.105036
0.762963 1.014815 -2.275556
0.371429 0.489286 -1.097143
0.375000 0.489286 -1.097143
0.375887 0.485816 -1.089362
0.376761 0.482394 -1.081690
0.380282 0.482394 -1.081690
0.383803 0.482394 -1.081690
0.384615 0.479021 -1.074126
0.386760 0.477352 -1.070383
0.390244 0.477352 -1.070383
0.388316 0.470790 -1.055670
0.393103 0.472414 -1.059310
0.395189 0.470790 -1.055670
0.397260 0.469178 -1.052055
0.400685 0.469178 -1.052055
0.401361 0.465986 -1.044898
0.383871 0.441935 -0.990968
0.387097 0.441935 -0.990968
0.390323 0.441935 -0.990968
0.409396 0.459732 -1.030873
0.391720 0.436306 -0.978344
0.394904 0.436306 -0.978344
0.395570 0.433544 -0.972152
0.398734 0.433544 -0.972152
0.401899 0.433544 -0.972152
0.418301 0.447712 -1.003922
0.403125 0.428125 -0.960000
0.406250 0.428125 -0.960000
0.425325 0.444805 -0.997403
0.411215 0.426791 -0.957009
0.410494 0.422839 -0.948148
0.413580 0.422839 -0.948148
0.432692 0.439103 -0.984615
0.435897 0.439103 -0.984615
0.417683 0.417683 -0.936585
0.422018 0.418960 -0.939450
0.421212 0.415152 -0.930909
0.424242 0.415152 -0.930909
0.427273 0.415152 -0.930909
0.430303 0.415152 -0.930909
0.433333 0.415152 -0.930909
0.433735 0.412651 -0.925301
0.434132 0.410180 -0.919761
0.434524 0.407738 -0.914286
0.437500 0.407738 -0.914286
0.437870 0.405325 -0.908876
0.440828 0.405325 -0.908876
0.443787 0.405325 -0.908876
5.033333 4.566667 -10.240001
5.066667 4.566667 -10.240001
15.300000 13.700000 -30.720001
15.400000 13.700000 -30.720001
15.500000 13.700000 -30.720001
15.600000 13.700000 -30.720001
15.700000 13.700000 -30.720001
15.800000 13.700000 -30.720001
15.900000 13.700000 -30.720001
16.000000 13.700000 -30.720001
20.125000 17.125000 -38.400002
82.000000 68.500000 -153.600006
82.500000 68.500000 -153.600006
41.500000 34.250000 -76.800003
41.750000 34.250000 -76.800003
42.000000 34.250000 -76.800003
42.250000 34.250000 -76.800003
42.500000 34.250000 -76.800003
42.750000 34.250000 -76.800003
43.000000 34.250000 -76.800003
43.250000 34.250000 -76.800003
43.500000 34.250000 -76.800003
43.750000 34.250000 -76.800003
44.000000 34.250000 -76.800003
44.250000 34.250000 -76.800003
44.500000 34.250000 -76.800003
44.750000 34.250000 -76.800003
90.000000 68.500000 -153.600006
90.500000 68.500000 -153.600006
91.500000 68.500000 -153.600006
92.000000 68.500000 -153.600006
92.500000 68.500000 -153.600006
93.000000 68.500000 -153.600006
93.500000 68.500000 -153.600006
94.000000 68.500000 -153.600006
94.500000 68.500000 -153.600006
95.000000 68.500000 -153.600006
-62.000000 45.333332 -102.400002
-12.769231 10.461538 -23.630770
-12.692307 10.461538 -23.630770
-12.615385 10.461538 -23.630770
-4.222222 3.777778 -8.533334
-1.965517 2.344828 -5.296552
-1.948276 2.344828 -5.296552
-6.750000 11.333333 -25.600000
-6.666667 11.333333 -25.600000
-6.583333 11.333333 -25.600000
-6.500000 11.333333 -25.600000
-15.400000 27.200001 -61.440002
-15.200000 27.200001 -61.440002
-6.250000 11.333333 -25.600000
-6.166667 11.333333 -25.600000
-10.428572 19.428572 -43.885715
-10.285714 19.428572 -43.885715
-1.365385 2.615385 -5.907692
-3.210526 7.157895 -16.168421
-3.000000 6.800000 -15.360001
-2.360000 5.440000 -12.288000
-2.761905 6.476191 -14.628572
-1.513514 3.675676 -8.302703
-1.486486 3.675676 -8.302703
-1.459459 3.675676 -8.302703
-10.200000 27.200001 -61.440002
-10.000000 27.200001 -61.440002
-1.333333 3.777778 -8.533334
-1.305556 3.777778 -8.533334
-1.277778 3.777778 -8.533334
-1.216216 3.675676 -8.302703
-1.189189 3.675676 -8.302703
-3.583333 11.333333 -25.600000
-1.105263 3.578947 -8.084210
-0.976190 3.238095 -7.314286
-0.952381 3.238095 -7.314286
-0.443182 1.545455 -3.490909
-0.745098 2.666667 -6.023530
-0.822222 3.022222 -6.826667
-0.800000 3.022222 -6.826667
-0.777778 3.022222 -6.826667
-0.739130 2.956522 -6.678261
-0.702128 2.893617 -6.536170
-0.666667 2.833333 -6.400000
-0.632653 2.775510 -6.269388
-0.600000 2.720000 -6.144000
-0.568627 2.666667 -6.023530
-0.538462 2.615385 -5.907692
-0.509434 2.566038 -5.796227
-0.481481 2.518518 -5.688889
-0.454545 2.472727 -5.585455
-13.000000 136.000000 -307.200012
-12.000000 136.000000 -307.200012
-3.666667 45.333332 -102.400002
-3.333333 45.333332 -102.400002
-2.250000 34.000000 -76.800003
-2.000000 34.000000 -76.800003
-1.166667 22.666666 -51.200001
-1.000000 22.666666 -51.200001
-0.833333 22.666666 -51.200001
-0.049383 1.679012 -3.792593
-0.036145 1.638554 -3.701205
-0.142857 9.714286 -21.942858
-0.071429 9.714286 -21.942858
0.000000 17.000000 -38.400002
0.125000 17.000000 -38.400002
0.250000 17.000000 -38.400002
0.375000 17.000000 -38.400002
0.266667 9.066667 -20.480001
0.333333 9.066667 -20.480001
0.272727 6.181818 -13.963637
0.318182 6.181818 -13.963637
0.363636 6.181818 -13.963637
0.409091 6.181818 -13.963637
0.416667 5.666667 -12.800000
0.500000 6.181818 -13.963637
0.521739 5.913043 -13.356523
1.625000 17.000000 -38.400002
0.608696 5.913043 -13.356523
0.652174 5.913043 -13.356523
0.695652 5.913043 -13.356523
0.739130 5.913043 -13.356523
0.782609 5.913043 -13.356523
0.863636 6.181818 -13.963637
0.869565 5.913043 -13.356523
0.875000 5.666667 -12.800000
0.880000 5.440000 -12.288000
0.884615 5.230769 -11.815385
0.888889 5.037037 -11.377778
0.892857 4.857143 -10.971429
0.896552 4.689655 -10.593103
0.900000 4.533333 -10.240001
0.903226 4.387097 -9.909678
0.906250 4.250000 -9.600000
0.909091 4.121212 -9.309092
0.911765 4.000000 -9.035295
0.914286 3.885714 -8.777143
0.916667 3.777778 -8.533334
0.918919 3.675676 -8.302703
0.921053 3.578947 -8.084210
0.923077 3.487180 -7.876924
4.111111 15.111111 -34.133335
1.187500 4.250000 -9.600000
1.000000 3.487180 -7.876924
0.833333 2.833333 -6.400000
0.854167 2.833333 -6.400000
0.875000 2.833333 -6.400000
0.877551 2.775510 -6.269388
0.785714 2.428571 -5.485714
0.357143 1.079365 -2.438095
0.359375 1.062500 -2.400000
0.367188 1.062500 -2.400000
0.372093 1.054264 -2.381395
0.368421 1.022556 -2.309775
0.381679 1.038168 -2.345038
0.389313 1.038168 -2.345038
0.390977 1.022556 -2.309775
0.398496 1.022556 -2.309775
0.400000 1.007407 -2.275556
0.407407 1.007407 -2.275556
0.411765 1.000000 -2.258824
0.416058 0.992701 -2.242336
0.420290 0.985507 -2.226087
0.424460 0.978417 -2.210072
0.431655 0.978417 -2.210072
0.435714 0.971429 -2.194286
0.442857 0.971429 -2.194286
0.453237 0.978417 -2.210072
0.460432 0.978417 -2.210072
0.305164 0.638498 -1.442254
0.312796 0.644550 -1.455924
0.313084 0.635514 -1.435514
0.317757 0.635514 -1.435514
0.522727 1.030303 -2.327273
0.327103 0.635514 -1.435514
0.314394 0.515152 -1.163636
0.318182 0.515152 -1.163636
0.321970 0.515152 -1.163636
0.325758 0.515152 -1.163636
0.329545 0.515152 -1.163636
0.333333 0.515152 -1.163636
0.318996 0.487455 -1.101075
0.339623 0.513208 -1.159245
0.739837 1.105691 -2.497561
0.343284 0.507463 -1.146269
0.345725 0.505576 -1.142007
0.349442 0.505576 -1.142007
0.353160 0.505576 -1.142007
0.359551 0.509363 -1.150562
0.355311 0.498168 -1.125275
0.358974 0.498168 -1.125275
0.360000 0.494545 -1.117091
0.362319 0.492754 -1.113044
0.364621 0.490975 -1.109025
0.368231 0.490975 -1.109025
0.762963 1.007407 -2.275556
0.371429 0.485714 -1.097143
0.375000 0.485714 -1.097143
0.378571 0.485714 -1.097143
0.378092 0.480565 -1.085512
0.381625 0.480565 -1.085512
0.773050 0.964539 -2.178724
0.387324 0.478873 -1.081690
0.386760 0.473868 -1.070383
0.390244 0.473868 -1.070383
0.391003 0.470588 -1.062976
0.394464 0.470588 -1.062976
0.395189 0.467354 -1.055670
0.398625 0.467354 -1.055670
0.785235 0.912752 -2.061745
0.401361 0.462585 -1.044898
0.383871 0.438710 -0.990968
0.405405 0.459459 -1.037838
0.790850 0.888889 -2.007843
0.410774 0.457912 -1.034343
0.391720 0.433121 -0.978344
0.413333 0.453333 -1.024000
0.395570 0.430380 -0.972152
0.398734 0.430380 -0.972152
0.401899 0.430380 -0.972152
0.422442 0.448845 -1.013861
0.403125 0.425000 -0.960000
0.426230 0.445902 -1.007213
0.803681 0.834356 -1.884663
0.411215 0.423676 -0.957009
0.410494 0.419753 -0.948148
0.432258 0.438710 -0.990968
0.808383 0.814371 -1.839521
0.435897 0.435897 -0.984615
0.417683 0.414634 -0.936585
0.422018 0.415902 -0.939450
0.421212 0.412121 -0.930909
0.424242 0.412121 -0.930909
0.424699 0.409639 -0.925301
0.427711 0.409639 -0.925301
0.430723 0.409639 -0.925301
0.433735 0.409639 -0.925301
0.434132 0.407186 -0.919761
0.434524 0.404762 -0.914286
0.437500 0.404762 -0.914286
0.437870 0.402367 -0.908876
0.440828 0.402367 -0.908876
0.443787 0.402367 -0.908876
5.033333 4.533333 -10.240001
15.200000 13.600000 -30.720001
15.300000 13.600000 -30.720001
15.400000 13.600000 -30.720001
15.500000 13.600000 -30.720001
15.600000 13.600000 -30.720001
15.700000 13.600000 -30.720001
15.800000 13.600000 -30.720001
15.900000 13.600000 -30.720001
41.000000 34.000000 -76.800003
41.250000 34.000000 -76.800003
41.500000 34.000000 -76.800003
41.750000 34.000000 -76.800003
42.000000 34.000000 -76.800003
42.250000 34.000000 -76.800003
42.500000 34.000000 -76.800003
42.750000 34.000000 -76.800003
43.000000 34.000000 -76.800003
43.250000 34.000000 -76.800003
43.500000 34.000000 -76.800003
43.750000 34.000000 -76.800003
44.000000 34.000000 -76.800003
44.250000 34.000000 -76.800003
44.500000 34.000000 -76.800003
91.500000 68.000000 -153.600006
92.000000 68.000000 -153.600006
92.500000 68.000000 -153.600006
93.000000 68.000000 -153.600006
93.500000 68.000000 -153.600006
94.000000 68.000000 -153.600006
94.500000 68.000000 -153.600006
95.000000 68.000000 -153.600006
-93.500000 67.500000 -153.600006
-93.000000 67.500000 -153.600006
-12.769231 10.384615 -23.630770
-12.615385 10.384615 -23.630770
-4.222222 3.750000 -8.533334
-1.965517 2.327586 -5.296552
-1.948276 2.327586 -5.296552
-5.187500 8.437500 -19.200001
-0.835052 1.391753 -3.167011
-6.666667 11.250000 -25.600000
-7.181818 12.272727 -27.927275
-15.600000 27.000000 -61.440002
-15.400000 27.000000 -61.440002
-15.200000 27.000000 -61.440002
-15.000000 27.000000 -61.440002
-6.166667 11.250000 -25.600000
-10.428572 19.285715 -43.885715
-10.285714 19.285715 -43.885715
-1.365385 2.596154 -5.907692
-3.210526 7.105263 -16.168421
-3.000000 6.750000 -15.360001
-2.360000 5.400000 -12.288000
-2.761905 6.428571 -14.628572
-1.540541 3.648649 -8.302703
-1.513514 3.648649 -8.302703
-1.486486 3.648649 -8.302703
-1.459459 3.648649 -8.302703
-0.726027 1.849315 -4.208220
-0.675676 1.824324 -4.151351
-1.333333 3.750000 -8.533334
-1.305556 3.750000 -8.533334
-1.277778 3.750000 -8.533334
-1.216216 3.648649 -8.302703
-1.257143 3.857143 -8.777143
-1.162162 3.648649 -8.302703
-1.105263 3.552632 -8.084210
-0.976190 3.214286 -7.314286
-0.952381 3.214286 -7.314286
-0.443182 1.534091 -3.490909
-0.431818 1.534091 -3.490909
-0.822222 3.000000 -6.826667
-0.800000 3.000000 -6.826667
-0.777778 3.000000 -6.826667
-0.739130 2.934783 -6.678261
-0.702128 2.872340 -6.536170
-0.666667 2.812500 -6.400000
-0.632653 2.755102 -6.269388
-0.600000 2.700000 -6.144000
-0.568627 2.647059 -6.023530
-0.538462 2.596154 -5.907692
-0.509434 2.547170 -5.796227
-0.481481 2.500000 -5.688889
-0.454545 2.454545 -5.585455
-0.212121 2.045455 -4.654546
-12.000000 135.000000 -307.200012
-3.666667 45.000000 -102.400002
-3.333333 45.000000 -102.400002
-2.250000 33.750000 -76.800003
-1.333333 22.500000 -51.200001
-1.166667 22.500000 -51.200001
-1.000000 22.500000 -51.200001
-0.833333 22.500000 -51.200001
-0.363636 12.272727 -27.927275
-0.375000 16.875000 -38.400002
-0.250000 16.875000 -38.400002
-0.125000 16.875000 -38.400002
0.000000 16.875000 -38.400002
0.125000 16.875000 -38.400002
0.250000 16.875000 -38.400002
0.500000 16.875000 -38.400002
0.384615 10.384615 -23.630770
0.461538 10.384615 -23.630770
0.538462 10.384615 -23.630770
0.615385 10.384615 -23.630770
0.692308 10.384615 -23.630770
0.769231 10.384615 -23.630770
0.785714 9.642858 -21.942858
0.705882 7.941176 -18.070589
0.764706 7.941176 -18.070589
0.823529 7.941176 -18.070589
0.789474 7.105263 -16.168421
0.842105 7.105263 -16.168421
0.850000 6.750000 -15.360001
0.857143 6.428571 -14.628572
0.863636 6.136364 -13.963637
0.869565 5.869565 -13.356523
0.875000 5.625000 -12.800000
0.880000 5.400000 -12.288000
0.884615 5.192307 -11.815385
0.888889 5.000000 -11.377778
0.892857 4.821429 -10.971429
0.896552 4.655172 -10.593103
